10.4282,-4.0832,2.4309
10.4282,-4.0832,-2.4309
10.4318,-1.9434,-2.0603
10.4318,-1.9434,2.0603
10.4345,-5.3839,-1.7209
10.4345,-5.3839,1.7209
10.4351,-1.0616,-1.1350
10.4351,-1.0616,1.1350
10.4384,-3.4663,-2.5000
10.4384,-3.4663,2.5000
10.4407,-6.1062,0.0000
10.4409,-2.9118,2.4454
10.4409,-2.9118,-2.4454
10.4409,-6.1054,-0.0654
10.4409,-6.1054,0.0654
10.4417,-6.1030,-0.1308
10.4417,-6.1030,0.1308
10.4424,-1.4683,1.6728
10.4424,-1.4683,-1.6728
10.4430,-6.0989,-0.1961
10.4430,-6.0989,0.1961
10.4437,-4.6721,-2.2275
10.4437,-4.6721,2.2275
10.4447,-6.0932,-0.2613
10.4447,-6.0932,0.2613
10.4469,-1.0352,1.0763
10.4469,-1.0352,-1.0763
10.4470,-6.0858,-0.3263
10.4470,-6.0858,0.3263
10.4486,-2.3811,2.2839
10.4486,-2.3811,-2.2839
10.4486,-5.3405,-1.7678
10.4486,-5.3405,1.7678
10.4496,-4.0230,2.4454
10.4496,-4.0230,-2.4454
10.4498,-6.0769,-0.3911
10.4498,-6.0769,0.3911
10.4522,-1.8940,2.0225
10.4522,-1.8940,-2.0225
10.4531,-6.0663,-0.4556
10.4531,-6.0663,0.4556
10.4569,-6.0541,-0.5198
10.4569,-6.0541,0.5198
10.4580,-1.0102,1.0168
10.4580,-1.0102,-1.0168
10.4594,-1.4286,-1.6236
10.4594,-1.4286,1.6236
10.4611,-3.4049,2.4991
10.4611,-3.4049,-2.4991
10.4612,-6.0403,-0.5836
10.4612,-6.0403,0.5836
10.4626,-4.6165,2.2565
10.4626,-4.6165,-2.2565
10.4631,-5.2959,-1.8134
10.4631,-5.2959,1.8134
10.4638,-2.8523,2.4309
10.4638,-2.8523,-2.4309
10.4659,-6.0249,-0.6470
10.4659,-6.0249,0.6470
10.4686,-0.9866,-0.9567
10.4686,-0.9866,0.9567
10.4706,-2.3259,-2.2565
10.4706,-2.3259,2.2565
10.4710,-3.9625,-2.4581
10.4710,-3.9625,2.4581
10.4712,-6.0079,-0.7100
10.4712,-6.0079,0.7100
10.4723,-1.8455,1.9834
10.4723,-1.8455,-1.9834
10.4759,-1.3902,-1.5733
10.4759,-1.3902,1.5733
10.4770,-5.9894,-0.7725
10.4770,-5.9894,0.7725
10.4780,-5.2502,-1.8579
10.4780,-5.2502,1.8579
10.4784,-0.9644,0.8959
10.4784,-0.9644,-0.8959
10.4817,-4.5602,-2.2839
10.4817,-4.5602,2.2839
10.4832,-5.9693,-0.8345
10.4832,-5.9693,0.8345
10.4837,-3.3435,2.4966
10.4837,-3.3435,-2.4966
10.4865,-2.7930,2.4148
10.4865,-2.7930,-2.4148
10.4876,-0.9437,-0.8345
10.4876,-0.9437,0.8345
10.4899,-5.9477,-0.8959
10.4899,-5.9477,0.8959
10.4919,-1.3530,-1.5219
10.4919,-1.3530,1.5219
10.4920,-1.7981,1.9429
10.4920,-1.7981,-1.9429
10.4924,-2.2714,-2.2275
10.4924,-2.2714,2.2275
10.4925,-3.9017,2.4692
10.4925,-3.9017,-2.4692
10.4932,-5.2034,1.9010
10.4932,-5.2034,-1.9010
10.4962,-0.9245,-0.7725
10.4962,-0.9245,0.7725
10.4971,-5.9245,0.9567
10.4971,-5.9245,-0.9567
10.5010,-4.5033,2.3097
10.5010,-4.5033,-2.3097
10.5041,-0.9068,-0.7100
10.5041,-0.9068,0.7100
10.5048,-5.8998,1.0168
10.5048,-5.8998,-1.0168
10.5063,-3.2822,2.4923
10.5063,-3.2822,-2.4923
10.5074,-1.3170,-1.4695
10.5074,-1.3170,1.4695
10.5087,-5.1555,1.9429
10.5087,-5.1555,-1.9429
10.5091,-2.7342,-2.3970
10.5091,-2.7342,2.3970
10.5112,-1.7516,1.9010
10.5112,-1.7516,-1.9010
10.5113,-0.8905,0.6470
10.5113,-0.8905,-0.6470
10.5129,-5.8737,1.0763
10.5129,-5.8737,-1.0763
10.5138,-2.2176,2.1970
10.5138,-2.2176,-2.1970
10.5141,-3.8406,-2.4786
10.5141,-3.8406,2.4786
10.5179,-0.8758,-0.5836
10.5179,-0.8758,0.5836
10.5206,-4.4457,2.3340
10.5206,-4.4457,-2.3340
10.5215,-5.8460,-1.1350
10.5215,-5.8460,1.1350
10.5223,-1.2823,-1.4160
10.5223,-1.2823,1.4160
10.5237,-0.8626,-0.5198
10.5237,-0.8626,0.5198
10.5246,-5.1067,-1.9834
10.5246,-5.1067,1.9834
10.5289,-3.2211,2.4863
10.5289,-3.2211,-2.4863
10.5289,-0.8510,-0.4556
10.5289,-0.8510,0.4556
10.5301,-1.7061,1.8579
10.5301,-1.7061,-1.8579
10.5305,-5.8169,-1.1929
10.5305,-5.8169,1.1929
10.5315,-2.6759,-2.3776
10.5315,-2.6759,2.3776
10.5334,-0.8408,-0.3911
10.5334,-0.8408,0.3911
10.5350,-2.1645,2.1651
10.5350,-2.1645,-2.1651
10.5358,-3.7794,2.4863
10.5358,-3.7794,-2.4863
10.5367,-1.2489,1.3616
10.5367,-1.2489,-1.3616
10.5373,-0.8323,-0.3263
10.5373,-0.8323,0.3263
10.5400,-5.7864,-1.2500
10.5400,-5.7864,1.2500
10.5403,-4.3876,2.3566
10.5403,-4.3876,-2.3566
10.5404,-0.8252,-0.2613
10.5404,-0.8252,0.2613
10.5408,-5.0568,-2.0225
10.5408,-5.0568,2.0225
10.5428,-0.8198,-0.1961
10.5428,-0.8198,0.1961
10.5446,-0.8158,-0.1308
10.5446,-0.8158,0.1308
10.5456,-0.8135,-0.0654
10.5456,-0.8135,0.0654
10.5460,-0.8127,0.0000
10.5485,-1.6617,1.8134
10.5485,-1.6617,-1.8134
10.5499,-5.7544,-1.3062
10.5499,-5.7544,1.3062
10.5504,-1.2168,-1.3062
10.5504,-1.2168,1.3062
10.5513,-3.1601,-2.4786
10.5513,-3.1601,2.4786
10.5537,-2.6180,2.3566
10.5537,-2.6180,-2.3566
10.5558,-2.1123,2.1316
10.5558,-2.1123,-2.1316
10.5573,-5.0060,-2.0603
10.5573,-5.0060,2.0603
10.5576,-3.7179,2.4923
10.5576,-3.7179,-2.4923
10.5602,-4.3289,-2.3776
10.5602,-4.3289,2.3776
10.5603,-5.7211,-1.3616
10.5603,-5.7211,1.3616
10.5636,-1.1860,1.2500
10.5636,-1.1860,-1.2500
10.5664,-1.6184,-1.7678
10.5664,-1.6184,1.7678
10.5711,-5.6863,-1.4160
10.5711,-5.6863,1.4160
10.5738,-3.0994,2.4692
10.5738,-3.0994,-2.4692
10.5741,-4.9542,-2.0967
10.5741,-4.9542,2.0967
10.5757,-2.5607,2.3340
10.5757,-2.5607,-2.3340
10.5763,-1.1566,1.1929
10.5763,-1.1566,-1.1929
10.5764,-2.0609,2.0967
10.5764,-2.0609,-2.0967
10.5794,-3.6564,2.4966
10.5794,-3.6564,-2.4966
10.5803,-4.2697,2.3970
10.5803,-4.2697,-2.3970
10.5823,-5.6503,-1.4695
10.5823,-5.6503,1.4695
10.5839,-1.5762,-1.7209
10.5839,-1.5762,1.7209
10.5883,-1.1286,-1.1350
10.5883,-1.1286,1.1350
10.5913,-4.9016,-2.1316
10.5913,-4.9016,2.1316
10.5939,-5.6129,1.5219
10.5939,-5.6129,-1.5219
10.5961,-3.0388,-2.4581
10.5961,-3.0388,2.4581
10.5965,-2.0103,-2.0603
10.5965,-2.0103,2.0603
10.5975,-2.5039,-2.3097
10.5975,-2.5039,2.3097
10.5997,-1.1020,1.0763
10.5997,-1.1020,-1.0763
10.6006,-4.2101,2.4148
10.6006,-4.2101,-2.4148
10.6009,-1.5352,1.6728
10.6009,-1.5352,-1.6728
10.6012,-3.5947,2.4991
10.6012,-3.5947,-2.4991
10.6059,-5.5742,-1.5733
10.6059,-5.5742,1.5733
10.6086,-4.8481,-2.1651
10.6086,-4.8481,2.1651
10.6105,-1.0769,1.0168
10.6105,-1.0769,-1.0168
10.6163,-1.9607,2.0225
10.6163,-1.9607,-2.0225
10.6174,-1.4953,-1.6236
10.6174,-1.4953,1.6236
10.6183,-5.5342,1.6236
10.6183,-5.5342,-1.6236
10.6183,-2.9786,2.4454
10.6183,-2.9786,-2.4454
10.6190,-2.4478,2.2839
10.6190,-2.4478,-2.2839
10.6207,-1.0531,-0.9567
10.6207,-1.0531,0.9567
10.6210,-4.1500,2.4309
10.6210,-4.1500,-2.4309
10.6231,-3.5330,-2.5000
10.6231,-3.5330,2.5000
10.6263,-4.7938,-2.1970
10.6263,-4.7938,2.1970
10.6303,-1.0309,0.8959
10.6303,-1.0309,-0.8959
10.6311,-5.4930,-1.6728
10.6311,-5.4930,1.6728
10.6334,-1.4566,-1.5733
10.6334,-1.4566,1.5733
10.6358,-1.9120,-1.9834
10.6358,-1.9120,1.9834
10.6393,-1.0100,-0.8345
10.6393,-1.0100,0.8345
10.6403,-2.3923,-2.2565
10.6403,-2.3923,2.2565
10.6404,-2.9187,2.4309
10.6404,-2.9187,-2.4309
10.6415,-4.0895,2.4454
10.6415,-4.0895,-2.4454
10.6442,-4.7387,-2.2275
10.6442,-4.7387,2.2275
10.6443,-5.4506,-1.7209
10.6443,-5.4506,1.7209
10.6449,-3.4713,2.4991
10.6449,-3.4713,-2.4991
10.6476,-0.9907,-0.7725
10.6476,-0.9907,0.7725
10.6489,-1.4192,-1.5219
10.6489,-1.4192,1.5219
10.6548,-1.8642,1.9429
10.6548,-1.8642,-1.9429
10.6552,-0.9729,-0.7100
10.6552,-0.9729,0.7100
10.6578,-5.4070,-1.7678
10.6578,-5.4070,1.7678
10.6599,-6.1727,0.0000
10.6601,-6.1719,-0.0654
10.6601,-6.1719,0.0654
10.6609,-6.1695,-0.1308
10.6609,-6.1695,0.1308
10.6614,-2.3375,-2.2275
10.6614,-2.3375,2.2275
10.6621,-6.1654,-0.1961
10.6621,-6.1654,0.1961
10.6621,-4.0288,-2.4581
10.6621,-4.0288,2.4581
10.6622,-0.9566,0.6470
10.6622,-0.9566,-0.6470
10.6623,-4.6828,2.2565
10.6623,-4.6828,-2.2565
10.6624,-2.8592,2.4148
10.6624,-2.8592,-2.4148
10.6638,-6.1596,-0.2613
10.6638,-6.1596,0.2613
10.6639,-1.3830,-1.4695
10.6639,-1.3830,1.4695
10.6660,-6.1522,-0.3263
10.6660,-6.1522,0.3263
10.6667,-3.4097,2.4966
10.6667,-3.4097,-2.4966
10.6686,-0.9418,-0.5836
10.6686,-0.9418,0.5836
10.6686,-6.1432,-0.3911
10.6686,-6.1432,0.3911
10.6717,-5.3622,-1.8134
10.6717,-5.3622,1.8134
10.6718,-6.1326,-0.4556
10.6718,-6.1326,0.4556
10.6734,-1.8175,1.9010
10.6734,-1.8175,-1.9010
10.6743,-0.9285,-0.5198
10.6743,-0.9285,0.5198
10.6754,-6.1204,-0.5198
10.6754,-6.1204,0.5198
10.6784,-1.3481,-1.4160
10.6784,-1.3481,1.4160
10.6793,-0.9168,-0.4556
10.6793,-0.9168,0.4556
10.6795,-6.1065,-0.5836
10.6795,-6.1065,0.5836
10.6807,-4.6263,-2.2839
10.6807,-4.6263,2.2839
10.6821,-2.2834,2.1970
10.6821,-2.2834,-2.1970
10.6829,-3.9677,2.4692
10.6829,-3.9677,-2.4692
10.6837,-0.9066,-0.3911
10.6837,-0.9066,0.3911
10.6841,-6.0911,-0.6470
10.6841,-6.0911,0.6470
10.6842,-2.8001,-2.3970
10.6842,-2.8001,2.3970
10.6860,-5.3163,-1.8579
10.6860,-5.3163,1.8579
10.6874,-0.8979,-0.3263
10.6874,-0.8979,0.3263
10.6885,-3.3481,2.4923
10.6885,-3.3481,-2.4923
10.6891,-6.0740,-0.7100
10.6891,-6.0740,0.7100
10.6905,-0.8909,-0.2613
10.6905,-0.8909,0.2613
10.6917,-1.7718,1.8579
10.6917,-1.7718,-1.8579
10.6923,-1.3145,1.3616
10.6923,-1.3145,-1.3616
10.6928,-0.8854,-0.1961
10.6928,-0.8854,0.1961
10.6945,-0.8814,-0.1308
10.6945,-0.8814,0.1308
10.6946,-6.0554,-0.7725
10.6946,-6.0554,0.7725
10.6955,-0.8791,-0.0654
10.6955,-0.8791,0.0654
10.6959,-0.8783,0.0000
10.6993,-4.5691,2.3097
10.6993,-4.5691,-2.3097
10.7006,-5.2693,1.9010
10.7006,-5.2693,-1.9010
10.7006,-6.0353,-0.8345
10.7006,-6.0353,0.8345
10.7026,-2.2301,2.1651
10.7026,-2.2301,-2.1651
10.7037,-3.9063,-2.4786
10.7037,-3.9063,2.4786
10.7056,-1.2822,-1.3062
10.7056,-1.2822,1.3062
10.7058,-2.7415,-2.3776
10.7058,-2.7415,2.3776
10.7071,-6.0135,-0.8959
10.7071,-6.0135,0.8959
10.7095,-1.7272,1.8134
10.7095,-1.7272,-1.8134
10.7103,-3.2867,2.4863
10.7103,-3.2867,-2.4863
10.7139,-5.9903,0.9567
10.7139,-5.9903,-0.9567
10.7155,-5.2212,1.9429
10.7155,-5.2212,-1.9429
10.7181,-4.5113,2.3340
10.7181,-4.5113,-2.3340
10.7184,-1.2513,1.2500
10.7184,-1.2513,-1.2500
10.7213,-5.9655,1.0168
10.7213,-5.9655,-1.0168
10.7228,-2.1776,2.1316
10.7228,-2.1776,-2.1316
10.7246,-3.8448,2.4863
10.7246,-3.8448,-2.4863
10.7269,-1.6836,-1.7678
10.7269,-1.6836,1.7678
10.7272,-2.6833,2.3566
10.7272,-2.6833,-2.3566
10.7291,-5.9392,1.0763
10.7291,-5.9392,-1.0763
10.7307,-1.2218,1.1929
10.7307,-1.2218,-1.1929
10.7307,-5.1721,-1.9834
10.7307,-5.1721,1.9834
10.7320,-3.2254,-2.4786
10.7320,-3.2254,2.4786
10.7370,-4.4529,2.3566
10.7370,-4.4529,-2.3566
10.7373,-5.9115,-1.1350
10.7373,-5.9115,1.1350
10.7423,-1.1936,-1.1350
10.7423,-1.1936,1.1350
10.7426,-2.1259,2.0967
10.7426,-2.1259,-2.0967
10.7438,-1.6412,-1.7209
10.7438,-1.6412,1.7209
10.7455,-3.7831,2.4923
10.7455,-3.7831,-2.4923
10.7459,-5.8823,-1.1929
10.7459,-5.8823,1.1929
10.7463,-5.1221,-2.0225
10.7463,-5.1221,2.0225
10.7485,-2.6257,2.3340
10.7485,-2.6257,-2.3340
10.7534,-1.1669,1.0763
10.7534,-1.1669,-1.0763
10.7536,-3.1644,2.4692
10.7536,-3.1644,-2.4692
10.7550,-5.8516,-1.2500
10.7550,-5.8516,1.2500
10.7562,-4.3940,-2.3776
10.7562,-4.3940,2.3776
10.7602,-1.5999,1.6728
10.7602,-1.5999,-1.6728
10.7621,-2.0751,-2.0603
10.7621,-2.0751,2.0603
10.7621,-5.0710,-2.0603
10.7621,-5.0710,2.0603
10.7639,-1.1416,1.0168
10.7639,-1.1416,-1.0168
10.7645,-5.8195,-1.3062
10.7645,-5.8195,1.3062
10.7665,-3.7212,2.4966
10.7665,-3.7212,-2.4966
10.7695,-2.5687,-2.3097
10.7695,-2.5687,2.3097
10.7738,-1.1177,-0.9567
10.7738,-1.1177,0.9567
10.7744,-5.7860,-1.3616
10.7744,-5.7860,1.3616
10.7751,-3.1036,-2.4581
10.7751,-3.1036,2.4581
10.7755,-4.3345,2.3970
10.7755,-4.3345,-2.3970
10.7762,-1.5599,-1.6236
10.7762,-1.5599,1.6236
10.7783,-5.0191,-2.0967
10.7783,-5.0191,2.0967
10.7813,-2.0252,2.0225
10.7813,-2.0252,-2.0225
10.7831,-1.0953,0.8959
10.7831,-1.0953,-0.8959
10.7848,-5.7512,-1.4160
10.7848,-5.7512,1.4160
10.7875,-3.6593,2.4991
10.7875,-3.6593,-2.4991
10.7904,-2.5123,2.2839
10.7904,-2.5123,-2.2839
10.7917,-1.5210,-1.5733
10.7917,-1.5210,1.5733
10.7917,-1.0744,-0.8345
10.7917,-1.0744,0.8345
10.7947,-4.9662,-2.1316
10.7947,-4.9662,2.1316
10.7950,-4.2746,2.4148
10.7950,-4.2746,-2.4148
10.7955,-5.7149,-1.4695
10.7955,-5.7149,1.4695
10.7966,-3.0431,2.4454
10.7966,-3.0431,-2.4454
10.7998,-1.0549,-0.7725
10.7998,-1.0549,0.7725
10.8000,-1.9763,1.9834
10.8000,-1.9763,-1.9834
10.8066,-5.6774,1.5219
10.8066,-5.6774,-1.5219
10.8068,-1.4834,-1.5219
10.8068,-1.4834,1.5219
10.8072,-1.0370,-0.7100
10.8072,-1.0370,0.7100
10.8086,-3.5974,-2.5000
10.8086,-3.5974,2.5000
10.8109,-2.4565,-2.2565
10.8109,-2.4565,2.2565
10.8114,-4.9125,-2.1651
10.8114,-4.9125,2.1651
10.8140,-1.0206,0.6470
10.8140,-1.0206,-0.6470
10.8146,-4.2143,2.4309
10.8146,-4.2143,-2.4309
10.8179,-2.9829,2.4309
10.8179,-2.9829,-2.4309
10.8181,-5.6386,-1.5733
10.8181,-5.6386,1.5733
10.8185,-1.9283,1.9429
10.8185,-1.9283,-1.9429
10.8202,-1.0057,-0.5836
10.8202,-1.0057,0.5836
10.8213,-1.4470,-1.4695
10.8213,-1.4470,1.4695
10.8257,-0.9924,-0.5198
10.8257,-0.9924,0.5198
10.8283,-4.8579,-2.1970
10.8283,-4.8579,2.1970
10.8296,-3.5354,2.4991
10.8296,-3.5354,-2.4991
10.8300,-5.5984,1.6236
10.8300,-5.5984,-1.6236
10.8306,-0.9806,-0.4556
10.8306,-0.9806,0.4556
10.8312,-2.4014,-2.2275
10.8312,-2.4014,2.2275
10.8343,-4.1536,2.4454
10.8343,-4.1536,-2.4454
10.8348,-0.9703,-0.3911
10.8348,-0.9703,0.3911
10.8353,-1.4119,-1.4160
10.8353,-1.4119,1.4160
10.8365,-1.8813,1.9010
10.8365,-1.8813,-1.9010
10.8384,-0.9617,-0.3263
10.8384,-0.9617,0.3263
10.8390,-2.9231,2.4148
10.8390,-2.9231,-2.4148
10.8414,-0.9545,-0.2613
10.8414,-0.9545,0.2613
10.8423,-5.5570,-1.6728
10.8423,-5.5570,1.6728
10.8437,-0.9490,-0.1961
10.8437,-0.9490,0.1961
10.8453,-0.9451,-0.1308
10.8453,-0.9451,0.1308
10.8455,-4.8026,-2.2275
10.8455,-4.8026,2.2275
10.8463,-0.9427,-0.0654
10.8463,-0.9427,0.0654
10.8466,-0.9419,0.0000
10.8487,-1.3781,1.3616
10.8487,-1.3781,-1.3616
10.8506,-3.4735,2.4966
10.8506,-3.4735,-2.4966
10.8513,-2.3471,2.1970
10.8513,-2.3471,-2.1970
10.8541,-4.0925,-2.4581
10.8541,-4.0925,2.4581
10.8541,-1.8354,1.8579
10.8541,-1.8354,-1.8579
10.8549,-5.5145,-1.7209
10.8549,-5.5145,1.7209
10.8601,-2.8637,-2.3970
10.8601,-2.8637,2.3970
10.8617,-1.3457,-1.3062
10.8617,-1.3457,1.3062
10.8629,-4.7466,2.2565
10.8629,-4.7466,-2.2565
10.8679,-5.4707,-1.7678
10.8679,-5.4707,1.7678
10.8711,-2.2935,2.1651
10.8711,-2.2935,-2.1651
10.8714,-1.7905,1.8134
10.8714,-1.7905,-1.8134
10.8716,-3.4116,2.4923
10.8716,-3.4116,-2.4923
10.8741,-4.0312,2.4692
10.8741,-4.0312,-2.4692
10.8741,-1.3146,1.2500
10.8741,-1.3146,-1.2500
10.8800,-6.2364,0.0000
10.8802,-6.2355,-0.0654
10.8802,-6.2355,0.0654
10.8805,-4.6898,-2.2839
10.8805,-4.6898,2.2839
10.8809,-6.2331,-0.1308
10.8809,-6.2331,0.1308
10.8809,-2.8048,-2.3776
10.8809,-2.8048,2.3776
10.8812,-5.4257,-1.8134
10.8812,-5.4257,1.8134
10.8820,-6.2289,-0.1961
10.8820,-6.2289,0.1961
10.8837,-6.2232,-0.2613
10.8837,-6.2232,0.2613
10.8858,-6.2158,-0.3263
10.8858,-6.2158,0.3263
10.8859,-1.2849,1.1929
10.8859,-1.2849,-1.1929
10.8882,-1.7468,-1.7678
10.8882,-1.7468,1.7678
10.8883,-6.2067,-0.3911
10.8883,-6.2067,0.3911
10.8905,-2.2408,2.1316
10.8905,-2.2408,-2.1316
10.8913,-6.1961,-0.4556
10.8913,-6.1961,0.4556
10.8926,-3.3499,2.4863
10.8926,-3.3499,-2.4863
10.8941,-3.9696,-2.4786
10.8941,-3.9696,2.4786
10.8948,-6.1838,-0.5198
10.8948,-6.1838,0.5198
10.8948,-5.3796,-1.8579
10.8948,-5.3796,1.8579
10.8972,-1.2566,-1.1350
10.8972,-1.2566,1.1350
10.8983,-4.6324,2.3097
10.8983,-4.6324,-2.3097
10.8987,-6.1699,-0.5836
10.8987,-6.1699,0.5836
10.9016,-2.7464,2.3566
10.9016,-2.7464,-2.3566
10.9031,-6.1544,-0.6470
10.9031,-6.1544,0.6470
10.9045,-1.7041,-1.7209
10.9045,-1.7041,1.7209
10.9079,-6.1373,-0.7100
10.9079,-6.1373,0.7100
10.9079,-1.2297,1.0763
10.9079,-1.2297,-1.0763
10.9088,-5.3325,1.9010
10.9088,-5.3325,-1.9010
10.9097,-2.1888,2.0967
10.9097,-2.1888,-2.0967
10.9132,-6.1186,-0.7725
10.9132,-6.1186,0.7725
10.9135,-3.2884,-2.4786
10.9135,-3.2884,2.4786
10.9142,-3.9078,2.4863
10.9142,-3.9078,-2.4863
10.9164,-4.5743,2.3340
10.9164,-4.5743,-2.3340
10.9181,-1.2043,1.0168
10.9181,-1.2043,-1.0168
10.9189,-6.0984,-0.8345
10.9189,-6.0984,0.8345
10.9204,-1.6626,1.6728
10.9204,-1.6626,-1.6728
10.9221,-2.6885,2.3340
10.9221,-2.6885,-2.3340
10.9231,-5.2842,1.9429
10.9231,-5.2842,-1.9429
10.9250,-6.0766,-0.8959
10.9250,-6.0766,0.8959
10.9277,-1.1803,-0.9567
10.9277,-1.1803,0.9567
10.9285,-2.1378,-2.0603
10.9285,-2.1378,2.0603
10.9316,-6.0532,0.9567
10.9316,-6.0532,-0.9567
10.9343,-3.2270,2.4692
10.9343,-3.2270,-2.4692
10.9343,-3.8458,2.4923
10.9343,-3.8458,-2.4923
10.9346,-4.5157,-2.3566
10.9346,-4.5157,2.3566
10.9359,-1.6224,-1.6236
10.9359,-1.6224,1.6236
10.9367,-1.1577,0.8959
10.9367,-1.1577,-0.8959
10.9377,-5.2349,-1.9834
10.9377,-5.2349,1.9834
10.9386,-6.0283,1.0168
10.9386,-6.0283,-1.0168
10.9424,-2.6312,-2.3097
10.9424,-2.6312,2.3097
10.9451,-1.1367,-0.8345
10.9451,-1.1367,0.8345
10.9461,-6.0020,1.0763
10.9461,-6.0020,-1.0763
10.9470,-2.0876,2.0225
10.9470,-2.0876,-2.0225
10.9509,-1.5833,-1.5733
10.9509,-1.5833,1.5733
10.9526,-5.1846,-2.0225
10.9526,-5.1846,2.0225
10.9529,-1.1172,-0.7725
10.9529,-1.1172,0.7725
10.9529,-4.4565,-2.3776
10.9529,-4.4565,2.3776
10.9539,-5.9741,-1.1350
10.9539,-5.9741,1.1350
10.9545,-3.7837,2.4966
10.9545,-3.7837,-2.4966
10.9550,-3.1659,-2.4581
10.9550,-3.1659,2.4581
10.9600,-1.0991,-0.7100
10.9600,-1.0991,0.7100
10.9622,-5.9448,-1.1929
10.9622,-5.9448,1.1929
10.9625,-2.5745,2.2839
10.9625,-2.5745,-2.2839
10.9652,-2.0384,1.9834
10.9652,-2.0384,-1.9834
10.9654,-1.5455,-1.5219
10.9654,-1.5455,1.5219
10.9666,-1.0826,0.6470
10.9666,-1.0826,-0.6470
10.9678,-5.1334,-2.0603
10.9678,-5.1334,2.0603
10.9709,-5.9140,-1.2500
10.9709,-5.9140,1.2500
10.9715,-4.3968,2.3970
10.9715,-4.3968,-2.3970
10.9726,-1.0677,-0.5836
10.9726,-1.0677,0.5836
10.9747,-3.7215,2.4991
10.9747,-3.7215,-2.4991
10.9756,-3.1052,2.4454
10.9756,-3.1052,-2.4454
10.9779,-1.0543,-0.5198
10.9779,-1.0543,0.5198
10.9795,-1.5089,-1.4695
10.9795,-1.5089,1.4695
10.9800,-5.8818,-1.3062
10.9800,-5.8818,1.3062
10.9823,-2.5185,-2.2565
10.9823,-2.5185,2.2565
10.9827,-1.0424,-0.4556
10.9827,-1.0424,0.4556
10.9830,-1.9902,1.9429
10.9830,-1.9902,-1.9429
10.9832,-5.0812,-2.0967
10.9832,-5.0812,2.0967
10.9868,-1.0321,-0.3911
10.9868,-1.0321,0.3911
10.9894,-5.8482,-1.3616
10.9894,-5.8482,1.3616
10.9902,-4.3366,2.4148
10.9902,-4.3366,-2.4148
10.9903,-1.0234,-0.3263
10.9903,-1.0234,0.3263
10.9930,-1.4736,-1.4160
10.9930,-1.4736,1.4160
10.9931,-1.0162,-0.2613
10.9931,-1.0162,0.2613
10.9949,-3.6592,-2.5000
10.9949,-3.6592,2.5000
10.9953,-1.0107,-0.1961
10.9953,-1.0107,0.1961
10.9962,-3.0447,2.4309
10.9962,-3.0447,-2.4309
10.9969,-1.0067,-0.1308
10.9969,-1.0067,0.1308
10.9979,-1.0043,-0.0654
10.9979,-1.0043,0.0654
10.9982,-1.0035,0.0000
10.9989,-5.0281,-2.1316
10.9989,-5.0281,2.1316
10.9993,-5.8132,-1.4160
10.9993,-5.8132,1.4160
11.0004,-1.9430,1.9010
11.0004,-1.9430,-1.9010
11.0019,-2.4631,-2.2275
11.0019,-2.4631,2.2275
11.0060,-1.4397,1.3616
11.0060,-1.4397,-1.3616
11.0090,-4.2761,2.4309
11.0090,-4.2761,-2.4309
11.0096,-5.7768,-1.4695
11.0096,-5.7768,1.4695
11.0149,-4.9742,-2.1651
11.0149,-4.9742,2.1651
11.0151,-3.5970,2.4991
11.0151,-3.5970,-2.4991
11.0166,-2.9846,2.4148
11.0166,-2.9846,-2.4148
11.0174,-1.8968,1.8579
11.0174,-1.8968,-1.8579
11.0185,-1.4071,-1.3062
11.0185,-1.4071,1.3062
11.0202,-5.7391,1.5219
11.0202,-5.7391,-1.5219
11.0213,-2.4085,2.1970
11.0213,-2.4085,-2.1970
11.0279,-4.2151,2.4454
11.0279,-4.2151,-2.4454
11.0305,-1.3758,1.2500
11.0305,-1.3758,-1.2500
11.0311,-4.9195,-2.1970
11.0311,-4.9195,2.1970
11.0312,-5.7001,-1.5733
11.0312,-5.7001,1.5733
11.0340,-1.8517,1.8134
11.0340,-1.8517,-1.8134
11.0353,-3.5348,2.4966
11.0353,-3.5348,-2.4966
11.0368,-2.9250,-2.3970
11.0368,-2.9250,2.3970
11.0403,-2.3547,2.1651
11.0403,-2.3547,-2.1651
11.0420,-1.3460,1.1929
11.0420,-1.3460,-1.1929
11.0425,-5.6599,1.6236
11.0425,-5.6599,-1.6236
11.0469,-4.1538,-2.4581
11.0469,-4.1538,2.4581
11.0476,-4.8639,-2.2275
11.0476,-4.8639,2.2275
11.0503,-1.8078,-1.7678
11.0503,-1.8078,1.7678
11.0529,-1.3175,-1.1350
11.0529,-1.3175,1.1350
11.0543,-5.6183,-1.6728
11.0543,-5.6183,1.6728
11.0555,-3.4727,2.4923
11.0555,-3.4727,-2.4923
11.0569,-2.8658,-2.3776
11.0569,-2.8658,2.3776
11.0591,-2.3017,2.1316
11.0591,-2.3017,-2.1316
11.0633,-1.2905,1.0763
11.0633,-1.2905,-1.0763
11.0643,-4.8077,2.2565
11.0643,-4.8077,-2.2565
11.0661,-4.0922,2.4692
11.0661,-4.0922,-2.4692
11.0661,-1.7649,-1.7209
11.0661,-1.7649,1.7209
11.0663,-5.5756,-1.7209
11.0663,-5.5756,1.7209
11.0731,-1.2649,1.0168
11.0731,-1.2649,-1.0168
11.0757,-3.4107,2.4863
11.0757,-3.4107,-2.4863
11.0768,-2.8071,2.3566
11.0768,-2.8071,-2.3566
11.0776,-2.2495,2.0967
11.0776,-2.2495,-2.0967
11.0787,-5.5316,-1.7678
11.0787,-5.5316,1.7678
11.0811,-4.7507,-2.2839
11.0811,-4.7507,2.2839
11.0814,-1.7232,1.6728
11.0814,-1.7232,-1.6728
11.0824,-1.2408,-0.9567
11.0824,-1.2408,0.9567
11.0853,-4.0303,-2.4786
11.0853,-4.0303,2.4786
11.0911,-1.2182,-0.8959
11.0911,-1.2182,0.8959
11.0914,-5.4865,-1.8134
11.0914,-5.4865,1.8134
11.0957,-2.1982,-2.0603
11.0957,-2.1982,2.0603
11.0957,-3.3489,-2.4786
11.0957,-3.3489,2.4786
11.0964,-1.6828,-1.6236
11.0964,-1.6828,1.6236
11.0966,-2.7490,2.3340
11.0966,-2.7490,-2.3340
11.0982,-4.6930,2.3097
11.0982,-4.6930,-2.3097
11.0992,-1.1970,-0.8345
11.0992,-1.1970,0.8345
11.1008,-6.2971,0.0000
11.1010,-6.2963,-0.0654
11.1010,-6.2963,0.0654
11.1017,-6.2938,-0.1308
11.1017,-6.2938,0.1308
11.1028,-6.2897,-0.1961
11.1028,-6.2897,0.1961
11.1044,-6.2839,-0.2613
11.1044,-6.2839,0.2613
11.1045,-5.4402,-1.8579
11.1045,-5.4402,1.8579
11.1045,-3.9683,2.4863
11.1045,-3.9683,-2.4863
11.1064,-6.2764,-0.3263
11.1064,-6.2764,0.3263
11.1067,-1.1774,-0.7725
11.1067,-1.1774,0.7725
11.1088,-6.2674,-0.3911
11.1088,-6.2674,0.3911
11.1109,-1.6435,-1.5733
11.1109,-1.6435,1.5733
11.1117,-6.2567,-0.4556
11.1117,-6.2567,0.4556
11.1136,-2.1478,2.0225
11.1136,-2.1478,-2.0225
11.1137,-1.1593,-0.7100
11.1137,-1.1593,0.7100
11.1150,-6.2443,-0.5198
11.1150,-6.2443,0.5198
11.1155,-4.6347,2.3340
11.1155,-4.6347,-2.3340
11.1158,-3.2873,2.4692
11.1158,-3.2873,-2.4692
11.1161,-2.6914,-2.3097
11.1161,-2.6914,2.3097
11.1178,-5.3929,1.9010
11.1178,-5.3929,-1.9010
11.1187,-6.2304,-0.5836
11.1187,-6.2304,0.5836
11.1200,-1.1427,-0.6470
11.1200,-1.1427,0.6470
11.1229,-6.2148,-0.6470
11.1229,-6.2148,0.6470
11.1239,-3.9060,2.4923
11.1239,-3.9060,-2.4923
11.1249,-1.6055,-1.5219
11.1249,-1.6055,1.5219
11.1258,-1.1276,-0.5836
11.1258,-1.1276,0.5836
11.1275,-6.1977,-0.7100
11.1275,-6.1977,0.7100
11.1310,-1.1142,-0.5198
11.1310,-1.1142,0.5198
11.1311,-2.0984,1.9834
11.1311,-2.0984,-1.9834
11.1315,-5.3445,1.9429
11.1315,-5.3445,-1.9429
11.1325,-6.1789,-0.7725
11.1325,-6.1789,0.7725
11.1329,-4.5758,2.3566
11.1329,-4.5758,-2.3566
11.1354,-2.6345,2.2839
11.1354,-2.6345,-2.2839
11.1356,-1.1022,-0.4556
11.1356,-1.1022,0.4556
11.1357,-3.2260,-2.4581
11.1357,-3.2260,2.4581
11.1379,-6.1586,-0.8345
11.1379,-6.1586,0.8345
11.1384,-1.5687,-1.4695
11.1384,-1.5687,1.4695
11.1395,-1.0919,-0.3911
11.1395,-1.0919,0.3911
11.1429,-1.0831,-0.3263
11.1429,-1.0831,0.3263
11.1432,-3.8437,2.4966
11.1432,-3.8437,-2.4966
11.1438,-6.1367,-0.8959
11.1438,-6.1367,0.8959
11.1454,-5.2950,-1.9834
11.1454,-5.2950,1.9834
11.1457,-1.0759,-0.2613
11.1457,-1.0759,0.2613
11.1478,-1.0703,-0.1961
11.1478,-1.0703,0.1961
11.1482,-2.0500,1.9429
11.1482,-2.0500,-1.9429
11.1493,-1.0664,-0.1308
11.1493,-1.0664,0.1308
11.1501,-6.1133,0.9567
11.1501,-6.1133,-0.9567
11.1503,-1.0640,-0.0654
11.1503,-1.0640,0.0654
11.1505,-4.5164,-2.3776
11.1505,-4.5164,2.3776
11.1506,-1.0632,0.0000
11.1515,-1.5333,-1.4160
11.1515,-1.5333,1.4160
11.1545,-2.5782,-2.2565
11.1545,-2.5782,2.2565
11.1555,-3.1649,2.4454
11.1555,-3.1649,-2.4454
11.1568,-6.0883,1.0168
11.1568,-6.0883,-1.0168
11.1597,-5.2445,-2.0225
11.1597,-5.2445,2.0225
11.1626,-3.7812,2.4991
11.1626,-3.7812,-2.4991
11.1639,-6.0619,1.0763
11.1639,-6.0619,-1.0763
11.1641,-1.4992,1.3616
11.1641,-1.4992,-1.3616
11.1650,-2.0025,1.9010
11.1650,-2.0025,-1.9010
11.1683,-4.4565,2.3970
11.1683,-4.4565,-2.3970
11.1714,-6.0339,-1.1350
11.1714,-6.0339,1.1350
11.1734,-2.5226,-2.2275
11.1734,-2.5226,2.2275
11.1742,-5.1931,-2.0603
11.1742,-5.1931,2.0603
11.1753,-3.1042,2.4309
11.1753,-3.1042,-2.4309
11.1762,-1.4664,-1.3062
11.1762,-1.4664,1.3062
11.1792,-6.0045,-1.1929
11.1792,-6.0045,1.1929
11.1815,-1.9561,1.8579
11.1815,-1.9561,-1.8579
11.1820,-3.7187,-2.5000
11.1820,-3.7187,2.5000
11.1862,-4.3961,2.4148
11.1862,-4.3961,-2.4148
11.1875,-5.9736,-1.2500
11.1875,-5.9736,1.2500
11.1878,-1.4350,-1.2500
11.1878,-1.4350,1.2500
11.1890,-5.1407,-2.0967
11.1890,-5.1407,2.0967
11.1920,-2.4678,2.1970
11.1920,-2.4678,-2.1970
11.1949,-3.0439,2.4148
11.1949,-3.0439,-2.4148
11.1962,-5.9413,-1.3062
11.1962,-5.9413,1.3062
11.1975,-1.9108,1.8134
11.1975,-1.9108,-1.8134
11.1988,-1.4050,1.1929
11.1988,-1.4050,-1.1929
11.2014,-3.6562,2.4991
11.2014,-3.6562,-2.4991
11.2040,-5.0874,-2.1316
11.2040,-5.0874,2.1316
11.2042,-4.3353,2.4309
11.2042,-4.3353,-2.4309
11.2052,-5.9075,-1.3616
11.2052,-5.9075,1.3616
11.2094,-1.3764,-1.1350
11.2094,-1.3764,1.1350
11.2104,-2.4137,2.1651
11.2104,-2.4137,-2.1651
11.2132,-1.8667,-1.7678
11.2132,-1.8667,1.7678
11.2143,-2.9840,-2.3970
11.2143,-2.9840,2.3970
11.2146,-5.8724,-1.4160
11.2146,-5.8724,1.4160
11.2193,-5.0333,-2.1651
11.2193,-5.0333,2.1651
11.2194,-1.3493,1.0763
11.2194,-1.3493,-1.0763
11.2208,-3.5937,2.4966
11.2208,-3.5937,-2.4966
11.2223,-4.2741,2.4454
11.2223,-4.2741,-2.4454
11.2244,-5.8359,-1.4695
11.2244,-5.8359,1.4695
11.2284,-1.8236,-1.7209
11.2284,-1.8236,1.7209
11.2284,-2.3604,2.1316
11.2284,-2.3604,-2.1316
11.2289,-1.3236,1.0168
11.2289,-1.3236,-1.0168
11.2336,-2.9245,-2.3776
11.2336,-2.9245,2.3776
11.2345,-5.7981,1.5219
11.2345,-5.7981,-1.5219
11.2348,-4.9783,-2.1970
11.2348,-4.9783,2.1970
11.2378,-1.2993,-0.9567
11.2378,-1.2993,0.9567
11.2402,-3.5314,-2.4923
11.2402,-3.5314,2.4923
11.2405,-4.2125,-2.4581
11.2405,-4.2125,2.4581
11.2432,-1.7817,1.6728
11.2432,-1.7817,-1.6728
11.2450,-5.7589,-1.5733
11.2450,-5.7589,1.5733
11.2462,-1.2766,0.8959
11.2462,-1.2766,-0.8959
11.2462,-2.3080,2.0967
11.2462,-2.3080,-2.0967
11.2505,-4.9226,-2.2275
11.2505,-4.9226,2.2275
11.2528,-2.8656,2.3566
11.2528,-2.8656,-2.3566
11.2541,-1.2553,-0.8345
11.2541,-1.2553,0.8345
11.2559,-5.7185,1.6236
11.2559,-5.7185,-1.6236
11.2576,-1.7410,-1.6236
11.2576,-1.7410,1.6236
11.2589,-4.1507,2.4692
11.2589,-4.1507,-2.4692
11.2595,-3.4691,2.4863
11.2595,-3.4691,-2.4863
11.2613,-1.2356,-0.7725
11.2613,-1.2356,0.7725
11.2637,-2.2565,-2.0603
11.2637,-2.2565,2.0603
11.2664,-4.8661,2.2565
11.2664,-4.8661,-2.2565
11.2670,-5.6768,-1.6728
11.2670,-5.6768,1.6728
11.2681,-1.2174,-0.7100
11.2681,-1.2174,0.7100
11.2716,-1.7016,-1.5733
11.2716,-1.7016,1.5733
11.2718,-2.8072,2.3340
11.2718,-2.8072,-2.3340
11.2742,-1.2007,0.6470
11.2742,-1.2007,-0.6470
11.2773,-4.0886,-2.4786
11.2773,-4.0886,2.4786
11.2785,-5.6339,-1.7209
11.2785,-5.6339,1.7209
11.2788,-3.4071,-2.4786
11.2788,-3.4071,2.4786
11.2798,-1.1856,-0.5836
11.2798,-1.1856,0.5836
11.2809,-2.2059,2.0225
11.2809,-2.2059,-2.0225
11.2825,-4.8089,-2.2839
11.2825,-4.8089,2.2839
11.2848,-1.1720,-0.5198
11.2848,-1.1720,0.5198
11.2851,-1.6634,-1.5219
11.2851,-1.6634,1.5219
11.2892,-1.1601,-0.4556
11.2892,-1.1601,0.4556
11.2903,-5.5898,-1.7678
11.2903,-5.5898,1.7678
11.2905,-2.7494,-2.3097
11.2905,-2.7494,2.3097
11.2930,-1.1497,-0.3911
11.2930,-1.1497,0.3911
11.2957,-4.0263,2.4863
11.2957,-4.0263,-2.4863
11.2963,-1.1409,-0.3263
11.2963,-1.1409,0.3263
11.2978,-2.1562,1.9834
11.2978,-2.1562,-1.9834
11.2980,-3.3452,2.4692
11.2980,-3.3452,-2.4692
11.2982,-1.6265,-1.4695
11.2982,-1.6265,1.4695
11.2989,-4.7510,2.3097
11.2989,-4.7510,-2.3097
11.2990,-1.1336,-0.2613
11.2990,-1.1336,0.2613
11.3010,-1.1280,-0.1961
11.3010,-1.1280,0.1961
11.3025,-5.5445,-1.8134
11.3025,-5.5445,1.8134
11.3025,-1.1240,-0.1308
11.3025,-1.1240,0.1308
11.3034,-1.1216,-0.0654
11.3034,-1.1216,0.0654
11.3037,-1.1208,0.0000
11.3091,-2.6922,-2.2839
11.3091,-2.6922,2.2839
11.3108,-1.5909,-1.4160
11.3108,-1.5909,1.4160
11.3142,-3.9638,2.4923
11.3142,-3.9638,-2.4923
11.3143,-2.1075,1.9429
11.3143,-2.1075,-1.9429
11.3149,-5.4981,-1.8579
11.3149,-5.4981,1.8579
11.3154,-4.6925,2.3340
11.3154,-4.6925,-2.3340
11.3171,-3.2836,-2.4581
11.3171,-3.2836,2.4581
11.3225,-6.3549,0.0000
11.3227,-6.3541,-0.0654
11.3227,-6.3541,0.0654
11.3229,-1.5566,1.3616
11.3229,-1.5566,-1.3616
11.3233,-6.3516,-0.1308
11.3233,-6.3516,0.1308
11.3244,-6.3475,-0.1961
11.3244,-6.3475,0.1961
11.3258,-6.3417,-0.2613
11.3258,-6.3417,0.2613
11.3275,-2.6356,-2.2565
11.3275,-2.6356,2.2565
11.3277,-5.4506,1.9010
11.3277,-5.4506,-1.9010
11.3277,-6.3342,-0.3263
11.3277,-6.3342,0.3263
11.3301,-6.3251,-0.3911
11.3301,-6.3251,0.3911
11.3305,-2.0599,1.9010
11.3305,-2.0599,-1.9010
11.3320,-4.6334,2.3566
11.3320,-4.6334,-2.3566
11.3328,-3.9011,2.4966
11.3328,-3.9011,-2.4966
11.3328,-6.3144,-0.4556
11.3328,-6.3144,0.4556
11.3346,-1.5237,-1.3062
11.3346,-1.5237,1.3062
11.3359,-6.3020,-0.5198
11.3359,-6.3020,0.5198
11.3362,-3.2223,2.4454
11.3362,-3.2223,-2.4454
11.3395,-6.2880,-0.5836
11.3395,-6.2880,0.5836
11.3407,-5.4020,1.9429
11.3407,-5.4020,-1.9429
11.3434,-6.2724,-0.6470
11.3434,-6.2724,0.6470
11.3456,-2.5798,-2.2275
11.3456,-2.5798,2.2275
11.3458,-1.4921,1.2500
11.3458,-1.4921,-1.2500
11.3463,-2.0133,1.8579
11.3463,-2.0133,-1.8579
11.3478,-6.2552,-0.7100
11.3478,-6.2552,0.7100
11.3489,-4.5738,-2.3776
11.3489,-4.5738,2.3776
11.3513,-3.8384,2.4991
11.3513,-3.8384,-2.4991
11.3526,-6.2363,-0.7725
11.3526,-6.2363,0.7725
11.3540,-5.3523,-1.9834
11.3540,-5.3523,1.9834
11.3551,-3.1613,2.4309
11.3551,-3.1613,-2.4309
11.3564,-1.4620,-1.1929
11.3564,-1.4620,1.1929
11.3578,-6.2160,-0.8345
11.3578,-6.2160,0.8345
11.3617,-1.9678,1.8134
11.3617,-1.9678,-1.8134
11.3634,-6.1940,-0.8959
11.3634,-6.1940,0.8959
11.3635,-2.5247,2.1970
11.3635,-2.5247,-2.1970
11.3658,-4.5136,2.3970
11.3658,-4.5136,-2.3970
11.3666,-1.4333,-1.1350
11.3666,-1.4333,1.1350
11.3676,-5.3017,-2.0225
11.3676,-5.3017,2.0225
11.3693,-6.1705,0.9567
11.3693,-6.1705,-0.9567
11.3699,-3.7757,-2.5000
11.3699,-3.7757,2.5000
11.3739,-3.1008,2.4148
11.3739,-3.1008,-2.4148
11.3757,-6.1455,1.0168
11.3757,-6.1455,-1.0168
11.3763,-1.4060,1.0763
11.3763,-1.4060,-1.0763
11.3768,-1.9234,-1.7678
11.3768,-1.9234,1.7678
11.3812,-2.4704,2.1651
11.3812,-2.4704,-2.1651
11.3814,-5.2501,-2.0603
11.3814,-5.2501,2.0603
11.3824,-6.1189,1.0763
11.3824,-6.1189,-1.0763
11.3829,-4.4530,2.4148
11.3829,-4.4530,-2.4148
11.3854,-1.3802,1.0168
11.3854,-1.3802,-1.0168
11.3885,-3.7129,-2.4991
11.3885,-3.7129,2.4991
11.3896,-6.0908,-1.1350
11.3896,-6.0908,1.1350
11.3915,-1.8802,-1.7209
11.3915,-1.8802,1.7209
11.3926,-3.0406,-2.3970
11.3926,-3.0406,2.3970
11.3941,-1.3558,-0.9567
11.3941,-1.3558,0.9567
11.3955,-5.1975,-2.0967
11.3955,-5.1975,2.0967
11.3971,-6.0613,-1.1929
11.3971,-6.0613,1.1929
11.3986,-2.4169,2.1316
11.3986,-2.4169,-2.1316
11.4001,-4.3919,2.4309
11.4001,-4.3919,-2.4309
11.4021,-1.3329,0.8959
11.4021,-1.3329,-0.8959
11.4049,-6.0303,-1.2500
11.4049,-6.0303,1.2500
11.4058,-1.8381,1.6728
11.4058,-1.8381,-1.6728
11.4071,-3.6502,2.4966
11.4071,-3.6502,-2.4966
11.4097,-1.3116,-0.8345
11.4097,-1.3116,0.8345
11.4098,-5.1440,-2.1316
11.4098,-5.1440,2.1316
11.4111,-2.9809,-2.3776
11.4111,-2.9809,2.3776
11.4132,-5.9979,-1.3062
11.4132,-5.9979,1.3062
11.4157,-2.3643,2.0967
11.4157,-2.3643,-2.0967
11.4167,-1.2918,-0.7725
11.4167,-1.2918,0.7725
11.4175,-4.3305,2.4454
11.4175,-4.3305,-2.4454
11.4196,-1.7972,-1.6236
11.4196,-1.7972,1.6236
11.4218,-5.9640,-1.3616
11.4218,-5.9640,1.3616
11.4232,-1.2735,-0.7100
11.4232,-1.2735,0.7100
11.4244,-5.0897,-2.1651
11.4244,-5.0897,2.1651
11.4256,-3.5876,2.4923
11.4256,-3.5876,-2.4923
11.4291,-1.2567,0.6470
11.4291,-1.2567,-0.6470
11.4295,-2.9217,2.3566
11.4295,-2.9217,-2.3566
11.4307,-5.9288,-1.4160
11.4307,-5.9288,1.4160
11.4325,-2.3125,-2.0603
11.4325,-2.3125,2.0603
11.4331,-1.7576,-1.5733
11.4331,-1.7576,1.5733
11.4345,-1.2415,-0.5836
11.4345,-1.2415,0.5836
11.4349,-4.2687,-2.4581
11.4349,-4.2687,2.4581
11.4391,-5.0345,-2.1970
11.4391,-5.0345,2.1970
11.4393,-1.2279,-0.5198
11.4393,-1.2279,0.5198
11.4400,-5.8922,-1.4695
11.4400,-5.8922,1.4695
11.4436,-1.2159,-0.4556
11.4436,-1.2159,0.4556
11.4442,-3.5251,2.4863
11.4442,-3.5251,-2.4863
11.4461,-1.7192,-1.5219
11.4461,-1.7192,1.5219
11.4473,-1.2054,-0.3911
11.4473,-1.2054,0.3911
11.4477,-2.8631,2.3340
11.4477,-2.8631,-2.3340
11.4490,-2.2617,2.0225
11.4490,-2.2617,-2.0225
11.4496,-5.8542,1.5219
11.4496,-5.8542,-1.5219
11.4504,-1.1966,-0.3263
11.4504,-1.1966,0.3263
11.4524,-4.2066,2.4692
11.4524,-4.2066,-2.4692
11.4530,-1.1893,-0.2613
11.4530,-1.1893,0.2613
11.4541,-4.9786,-2.2275
11.4541,-4.9786,2.2275
11.4550,-1.1837,-0.1961
11.4550,-1.1837,0.1961
11.4564,-1.1796,-0.1308
11.4564,-1.1796,0.1308
11.4573,-1.1772,-0.0654
11.4573,-1.1772,0.0654
11.4576,-1.1764,0.0000
11.4587,-1.6821,-1.4695
11.4587,-1.6821,1.4695
11.4596,-5.8149,-1.5733
11.4596,-5.8149,1.5733
11.4626,-3.4628,-2.4786
11.4626,-3.4628,2.4786
11.4652,-2.2118,1.9834
11.4652,-2.2118,-1.9834
11.4657,-2.8050,-2.3097
11.4657,-2.8050,2.3097
11.4693,-4.9219,2.2565
11.4693,-4.9219,-2.2565
11.4699,-5.7744,1.6236
11.4699,-5.7744,-1.6236
11.4700,-4.1443,-2.4786
11.4700,-4.1443,2.4786
11.4708,-1.6464,-1.4160
11.4708,-1.6464,1.4160
11.4805,-5.7326,-1.6728
11.4805,-5.7326,1.6728
11.4810,-3.4007,2.4692
11.4810,-3.4007,-2.4692
11.4811,-2.1629,1.9429
11.4811,-2.1629,-1.9429
11.4825,-1.6119,1.3616
11.4825,-1.6119,-1.3616
11.4836,-2.7476,2.2839
11.4836,-2.7476,-2.2839
11.4847,-4.8645,-2.2839
11.4847,-4.8645,2.2839
11.4876,-4.0817,2.4863
11.4876,-4.0817,-2.4863
11.4915,-5.6895,-1.7209
11.4915,-5.6895,1.7209
11.4938,-1.5789,-1.3062
11.4938,-1.5789,1.3062
11.4966,-2.1151,1.9010
11.4966,-2.1151,-1.9010
11.4993,-3.3389,-2.4581
11.4993,-3.3389,2.4581
11.5003,-4.8064,2.3097
11.5003,-4.8064,-2.3097
11.5012,-2.6908,-2.2565
11.5012,-2.6908,2.2565
11.5027,-5.6452,-1.7678
11.5027,-5.6452,1.7678
11.5045,-1.5472,1.2500
11.5045,-1.5472,-1.2500
11.5053,-4.0190,2.4923
11.5053,-4.0190,-2.4923
11.5118,-2.0683,1.8579
11.5118,-2.0683,-1.8579
11.5143,-5.5998,-1.8134
11.5143,-5.5998,1.8134
11.5148,-1.5169,1.1929
11.5148,-1.5169,-1.1929
11.5160,-4.7477,2.3340
11.5160,-4.7477,-2.3340
11.5176,-3.2773,2.4454
11.5176,-3.2773,-2.4454
11.5186,-2.6348,-2.2275
11.5186,-2.6348,2.2275
11.5230,-3.9562,2.4966
11.5230,-3.9562,-2.4966
11.5246,-1.4880,-1.1350
11.5246,-1.4880,1.1350
11.5261,-5.5532,-1.8579
11.5261,-5.5532,1.8579
11.5267,-2.0226,1.8134
11.5267,-2.0226,-1.8134
11.5319,-4.6884,2.3566
11.5319,-4.6884,-2.3566
11.5339,-1.4606,1.0763
11.5339,-1.4606,-1.0763
11.5357,-3.2161,2.4309
11.5357,-3.2161,-2.4309
11.5358,-2.5795,2.1970
11.5358,-2.5795,-2.1970
11.5382,-5.5055,1.9010
11.5382,-5.5055,-1.9010
11.5408,-3.8932,2.4991
11.5408,-3.8932,-2.4991
11.5412,-1.9780,-1.7678
11.5412,-1.9780,1.7678
11.5427,-1.4347,1.0168
11.5427,-1.4347,-1.0168
11.5449,-6.4099,0.0000
11.5451,-6.4090,-0.0654
11.5451,-6.4090,0.0654
11.5457,-6.4065,-0.1308
11.5457,-6.4065,0.1308
11.5467,-6.4024,-0.1961
11.5467,-6.4024,0.1961
11.5479,-4.6285,-2.3776
11.5479,-4.6285,2.3776
11.5481,-6.3966,-0.2613
11.5481,-6.3966,0.2613
11.5499,-6.3891,-0.3263
11.5499,-6.3891,0.3263
11.5506,-5.4568,1.9429
11.5506,-5.4568,-1.9429
11.5510,-1.4102,-0.9567
11.5510,-1.4102,0.9567
11.5521,-6.3799,-0.3911
11.5521,-6.3799,0.3911
11.5527,-2.5249,2.1651
11.5527,-2.5249,-2.1651
11.5537,-3.1553,2.4148
11.5537,-3.1553,-2.4148
11.5546,-6.3692,-0.4556
11.5546,-6.3692,0.4556
11.5553,-1.9346,-1.7209
11.5553,-1.9346,1.7209
11.5576,-6.3568,-0.5198
11.5576,-6.3568,0.5198
11.5586,-3.8302,-2.5000
11.5586,-3.8302,2.5000
11.5588,-1.3873,0.8959
11.5588,-1.3873,-0.8959
11.5610,-6.3427,-0.5836
11.5610,-6.3427,0.5836
11.5632,-5.4069,-1.9834
11.5632,-5.4069,1.9834
11.5641,-4.5681,2.3970
11.5641,-4.5681,-2.3970
11.5648,-6.3270,-0.6470
11.5648,-6.3270,0.6470
11.5661,-1.3658,-0.8345
11.5661,-1.3658,0.8345
11.5689,-6.3098,-0.7100
11.5689,-6.3098,0.7100
11.5690,-1.8923,1.6728
11.5690,-1.8923,-1.6728
11.5694,-2.4712,2.1316
11.5694,-2.4712,-2.1316
11.5716,-3.0949,-2.3970
11.5716,-3.0949,2.3970
11.5728,-1.3459,-0.7725
11.5728,-1.3459,0.7725
11.5734,-6.2909,-0.7725
11.5734,-6.2909,0.7725
11.5761,-5.3561,-2.0225
11.5761,-5.3561,2.0225
11.5763,-3.7672,2.4991
11.5763,-3.7672,-2.4991
11.5783,-6.2704,-0.8345
11.5783,-6.2704,0.8345
11.5791,-1.3275,-0.7100
11.5791,-1.3275,0.7100
11.5804,-4.5073,2.4148
11.5804,-4.5073,-2.4148
11.5824,-1.8513,-1.6236
11.5824,-1.8513,1.6236
11.5836,-6.2484,-0.8959
11.5836,-6.2484,0.8959
11.5848,-1.3107,0.6470
11.5848,-1.3107,-0.6470
11.5858,-2.4183,2.0967
11.5858,-2.4183,-2.0967
11.5893,-6.2248,0.9567
11.5893,-6.2248,-0.9567
11.5893,-5.3043,-2.0603
11.5893,-5.3043,2.0603
11.5893,-3.0350,-2.3776
11.5893,-3.0350,2.3776
11.5900,-1.2954,-0.5836
11.5900,-1.2954,0.5836
11.5941,-3.7043,2.4966
11.5941,-3.7043,-2.4966
11.5946,-1.2818,-0.5198
11.5946,-1.2818,0.5198
11.5953,-1.8115,-1.5733
11.5953,-1.8115,1.5733
11.5953,-6.1997,1.0168
11.5953,-6.1997,-1.0168
11.5968,-4.4460,2.4309
11.5968,-4.4460,-2.4309
11.5987,-1.2697,-0.4556
11.5987,-1.2697,0.4556
11.6017,-6.1731,1.0763
11.6017,-6.1731,-1.0763
11.6019,-2.3664,-2.0603
11.6019,-2.3664,2.0603
11.6023,-1.2592,-0.3911
11.6023,-1.2592,0.3911
11.6027,-5.2516,-2.0967
11.6027,-5.2516,2.0967
11.6053,-1.2503,-0.3263
11.6053,-1.2503,0.3263
11.6069,-2.9755,2.3566
11.6069,-2.9755,-2.3566
11.6078,-1.2430,-0.2613
11.6078,-1.2430,0.2613
11.6078,-1.7729,-1.5219
11.6078,-1.7729,1.5219
11.6085,-6.1449,-1.1350
11.6085,-6.1449,1.1350
11.6097,-1.2373,-0.1961
11.6097,-1.2373,0.1961
11.6111,-1.2333,-0.1308
11.6111,-1.2333,0.1308
11.6118,-3.6414,2.4923
11.6118,-3.6414,-2.4923
11.6119,-1.2308,-0.0654
11.6119,-1.2308,0.0654
11.6122,-1.2300,0.0000
11.6133,-4.3844,2.4454
11.6133,-4.3844,-2.4454
11.6156,-6.1153,-1.1929
11.6156,-6.1153,1.1929
11.6163,-5.1979,-2.1316
11.6163,-5.1979,2.1316
11.6178,-2.3153,-2.0225
11.6178,-2.3153,2.0225
11.6199,-1.7357,-1.4695
11.6199,-1.7357,1.4695
11.6231,-6.0842,-1.2500
11.6231,-6.0842,1.2500
11.6244,-2.9167,2.3340
11.6244,-2.9167,-2.3340
11.6295,-3.5787,2.4863
11.6295,-3.5787,-2.4863
11.6300,-4.3224,-2.4581
11.6300,-4.3224,2.4581
11.6302,-5.1434,-2.1651
11.6302,-5.1434,2.1651
11.6309,-6.0517,-1.3062
11.6309,-6.0517,1.3062
11.6316,-1.6998,-1.4160
11.6316,-1.6998,1.4160
11.6333,-2.2652,1.9834
11.6333,-2.2652,-1.9834
11.6390,-6.0177,-1.3616
11.6390,-6.0177,1.3616
11.6417,-2.8584,-2.3097
11.6417,-2.8584,2.3097
11.6428,-1.6652,1.3616
11.6428,-1.6652,-1.3616
11.6442,-5.0881,-2.1970
11.6442,-5.0881,2.1970
11.6467,-4.2600,2.4692
11.6467,-4.2600,-2.4692
11.6471,-3.5162,-2.4786
11.6471,-3.5162,2.4786
11.6475,-5.9823,-1.4160
11.6475,-5.9823,1.4160
11.6486,-2.2162,1.9429
11.6486,-2.2162,-1.9429
11.6536,-1.6320,-1.3062
11.6536,-1.6320,1.3062
11.6563,-5.9456,-1.4695
11.6563,-5.9456,1.4695
11.6585,-5.0319,-2.2275
11.6585,-5.0319,2.2275
11.6587,-2.8007,2.2839
11.6587,-2.8007,-2.2839
11.6634,-4.1975,-2.4786
11.6634,-4.1975,2.4786
11.6635,-2.1681,1.9010
11.6635,-2.1681,-1.9010
11.6639,-1.6001,1.2500
11.6639,-1.6001,-1.2500
11.6647,-3.4538,2.4692
11.6647,-3.4538,-2.4692
11.6655,-5.9075,-1.5219
11.6655,-5.9075,1.5219
11.6729,-4.9750,2.2565
11.6729,-4.9750,-2.2565
11.6738,-1.5697,-1.1929
11.6738,-1.5697,1.1929
11.6749,-5.8681,-1.5733
11.6749,-5.8681,1.5733
11.6756,-2.7437,-2.2565
11.6756,-2.7437,2.2565
11.6781,-2.1211,1.8579
11.6781,-2.1211,-1.8579
11.6802,-4.1347,2.4863
11.6802,-4.1347,-2.4863
11.6822,-3.3917,-2.4581
11.6822,-3.3917,2.4581
11.6832,-1.5408,-1.1350
11.6832,-1.5408,1.1350
11.6847,-5.8274,1.6236
11.6847,-5.8274,-1.6236
11.6876,-4.9174,-2.2839
11.6876,-4.9174,2.2839
11.6922,-1.5132,1.0763
11.6922,-1.5132,-1.0763
11.6923,-2.6875,-2.2275
11.6923,-2.6875,2.2275
11.6924,-2.0752,1.8134
11.6924,-2.0752,-1.8134
11.6948,-5.7855,-1.6728
11.6948,-5.7855,1.6728
11.6971,-4.0717,2.4923
11.6971,-4.0717,-2.4923
11.6996,-3.3300,2.4454
11.6996,-3.3300,-2.4454
11.7007,-1.4872,1.0168
11.7007,-1.4872,-1.0168
11.7024,-4.8591,2.3097
11.7024,-4.8591,-2.3097
11.7051,-5.7423,-1.7209
11.7051,-5.7423,1.7209
11.7063,-2.0304,-1.7678
11.7063,-2.0304,1.7678
11.7086,-1.4626,-0.9567
11.7086,-1.4626,0.9567
11.7087,-2.6319,-2.1970
11.7087,-2.6319,2.1970
11.7140,-4.0087,2.4966
11.7140,-4.0087,-2.4966
11.7158,-5.6979,-1.7678
11.7158,-5.6979,1.7678
11.7161,-1.4395,0.8959
11.7161,-1.4395,-0.8959
11.7170,-3.2685,2.4309
11.7170,-3.2685,-2.4309
11.7173,-4.8002,2.3340
11.7173,-4.8002,-2.3340
11.7198,-1.9868,-1.7209
11.7198,-1.9868,1.7209
11.7231,-1.4180,-0.8345
11.7231,-1.4180,0.8345
11.7250,-2.5772,2.1651
11.7250,-2.5772,-2.1651
11.7267,-5.6523,-1.8134
11.7267,-5.6523,1.8134
11.7296,-1.3980,-0.7725
11.7296,-1.3980,0.7725
11.7309,-3.9455,2.4991
11.7309,-3.9455,-2.4991
11.7324,-4.7407,2.3566
11.7324,-4.7407,-2.3566
11.7330,-1.9444,1.6728
11.7330,-1.9444,-1.6728
11.7342,-3.2075,2.4148
11.7342,-3.2075,-2.4148
11.7356,-1.3795,-0.7100
11.7356,-1.3795,0.7100
11.7380,-5.6056,-1.8579
11.7380,-5.6056,1.8579
11.7409,-2.5232,2.1316
11.7409,-2.5232,-2.1316
11.7411,-1.3626,0.6470
11.7411,-1.3626,-0.6470
11.7458,-1.9032,-1.6236
11.7458,-1.9032,1.6236
11.7461,-1.3473,-0.5836
11.7461,-1.3473,0.5836
11.7477,-4.6806,-2.3776
11.7477,-4.6806,2.3776
11.7479,-3.8823,-2.5000
11.7479,-3.8823,2.5000
11.7495,-5.5577,1.9010
11.7495,-5.5577,-1.9010
11.7506,-1.3336,-0.5198
11.7506,-1.3336,0.5198
11.7513,-3.1468,-2.3970
11.7513,-3.1468,2.3970
11.7545,-1.3214,-0.4556
11.7545,-1.3214,0.4556
11.7566,-2.4702,2.0967
11.7566,-2.4702,-2.0967
11.7579,-1.3109,-0.3911
11.7579,-1.3109,0.3911
11.7582,-1.8632,-1.5733
11.7582,-1.8632,1.5733
11.7608,-1.3019,-0.3263
11.7608,-1.3019,0.3263
11.7612,-5.5088,1.9429
11.7612,-5.5088,-1.9429
11.7631,-4.6201,2.3970
11.7631,-4.6201,-2.3970
11.7632,-1.2946,-0.2613
11.7632,-1.2946,0.2613
11.7648,-3.8191,2.4991
11.7648,-3.8191,-2.4991
11.7651,-1.2889,-0.1961
11.7651,-1.2889,0.1961
11.7664,-1.2849,-0.1308
11.7664,-1.2849,0.1308
11.7672,-1.2824,-0.0654
11.7672,-1.2824,0.0654
11.7674,-1.2816,0.0000
11.7680,-6.4619,0.0000
11.7681,-6.4611,-0.0654
11.7681,-6.4611,0.0654
11.7683,-3.0867,-2.3776
11.7683,-3.0867,2.3776
11.7687,-6.4585,-0.1308
11.7687,-6.4585,0.1308
11.7697,-6.4544,-0.1961
11.7697,-6.4544,0.1961
11.7702,-1.8245,-1.5219
11.7702,-1.8245,1.5219
11.7710,-6.4485,-0.2613
11.7710,-6.4485,0.2613
11.7721,-2.4180,-2.0603
11.7721,-2.4180,2.0603
11.7727,-6.4410,-0.3263
11.7727,-6.4410,0.3263
11.7732,-5.4588,-1.9834
11.7732,-5.4588,1.9834
11.7747,-6.4319,-0.3911
11.7747,-6.4319,0.3911
11.7772,-6.4211,-0.4556
11.7772,-6.4211,0.4556
11.7786,-4.5590,2.4148
11.7786,-4.5590,-2.4148
11.7800,-6.4086,-0.5198
11.7800,-6.4086,0.5198
11.7817,-3.7559,2.4966
11.7817,-3.7559,-2.4966
11.7818,-1.7871,-1.4695
11.7818,-1.7871,1.4695
11.7832,-6.3945,-0.5836
11.7832,-6.3945,0.5836
11.7851,-3.0270,2.3566
11.7851,-3.0270,-2.3566
11.7854,-5.4078,-2.0225
11.7854,-5.4078,2.0225
11.7868,-6.3788,-0.6470
11.7868,-6.3788,0.6470
11.7873,-2.3667,2.0225
11.7873,-2.3667,-2.0225
11.7907,-6.3615,-0.7100
11.7907,-6.3615,0.7100
11.7930,-1.7511,-1.4160
11.7930,-1.7511,1.4160
11.7942,-4.4975,-2.4309
11.7942,-4.4975,2.4309
11.7950,-6.3425,-0.7725
11.7950,-6.3425,0.7725
11.7979,-5.3558,-2.0603
11.7979,-5.3558,2.0603
11.7986,-3.6928,2.4923
11.7986,-3.6928,-2.4923
11.7996,-6.3220,-0.8345
11.7996,-6.3220,0.8345
11.8017,-2.9679,2.3340
11.8017,-2.9679,-2.3340
11.8022,-2.3165,1.9834
11.8022,-2.3165,-1.9834
11.8038,-1.7163,1.3616
11.8038,-1.7163,-1.3616
11.8046,-6.2999,-0.8959
11.8046,-6.2999,0.8959
11.8099,-4.4356,2.4454
11.8099,-4.4356,-2.4454
11.8100,-6.2763,0.9567
11.8100,-6.2763,-0.9567
11.8106,-5.3029,-2.0967
11.8106,-5.3029,2.0967
11.8141,-1.6830,-1.3062
11.8141,-1.6830,1.3062
11.8155,-3.6299,2.4863
11.8155,-3.6299,-2.4863
11.8157,-6.2511,1.0168
11.8157,-6.2511,-1.0168
11.8168,-2.2672,1.9429
11.8168,-2.2672,-1.9429
11.8182,-2.9094,-2.3097
11.8182,-2.9094,2.3097
11.8217,-6.2244,1.0763
11.8217,-6.2244,-1.0763
11.8235,-5.2491,-2.1316
11.8235,-5.2491,2.1316
11.8241,-1.6510,1.2500
11.8241,-1.6510,-1.2500
11.8257,-4.3734,-2.4581
11.8257,-4.3734,2.4581
11.8281,-6.1961,-1.1350
11.8281,-6.1961,1.1350
11.8311,-2.2189,1.9010
11.8311,-2.2189,-1.9010
11.8323,-3.5671,-2.4786
11.8323,-3.5671,2.4786
11.8336,-1.6205,1.1929
11.8336,-1.6205,-1.1929
11.8346,-2.8516,2.2839
11.8346,-2.8516,-2.2839
11.8348,-6.1664,-1.1929
11.8348,-6.1664,1.1929
11.8367,-5.1944,-2.1651
11.8367,-5.1944,2.1651
11.8416,-4.3109,2.4692
11.8416,-4.3109,-2.4692
11.8419,-6.1352,-1.2500
11.8419,-6.1352,1.2500
11.8426,-1.5914,-1.1350
11.8426,-1.5914,1.1350
11.8450,-2.1718,1.8579
11.8450,-2.1718,-1.8579
11.8491,-3.5045,2.4692
11.8491,-3.5045,-2.4692
11.8493,-6.1026,-1.3062
11.8493,-6.1026,1.3062
11.8500,-5.1389,-2.1970
11.8500,-5.1389,2.1970
11.8507,-2.7944,-2.2565
11.8507,-2.7944,2.2565
11.8512,-1.5637,1.0763
11.8512,-1.5637,-1.0763
11.8570,-6.0685,-1.3616
11.8570,-6.0685,1.3616
11.8575,-4.2481,-2.4786
11.8575,-4.2481,2.4786
11.8587,-2.1257,1.8134
11.8587,-2.1257,-1.8134
11.8593,-1.5376,1.0168
11.8593,-1.5376,-1.0168
11.8635,-5.0826,-2.2275
11.8635,-5.0826,2.2275
11.8650,-6.0330,-1.4160
11.8650,-6.0330,1.4160
11.8658,-3.4422,-2.4581
11.8658,-3.4422,2.4581
11.8666,-2.7379,-2.2275
11.8666,-2.7379,2.2275
11.8670,-1.5129,-0.9567
11.8670,-1.5129,0.9567
11.8720,-2.0807,-1.7678
11.8720,-2.0807,1.7678
11.8733,-5.9962,-1.4695
11.8733,-5.9962,1.4695
11.8735,-4.1851,2.4863
11.8735,-4.1851,-2.4863
11.8742,-1.4897,0.8959
11.8742,-1.4897,-0.8959
11.8772,-5.0255,2.2565
11.8772,-5.0255,-2.2565
11.8809,-1.4681,-0.8345
11.8809,-1.4681,0.8345
11.8820,-5.9580,1.5219
11.8820,-5.9580,-1.5219
11.8824,-2.6821,2.1970
11.8824,-2.6821,-2.1970
11.8824,-3.3802,2.4454
11.8824,-3.3802,-2.4454
11.8850,-2.0369,-1.7209
11.8850,-2.0369,1.7209
11.8871,-1.4480,-0.7725
11.8871,-1.4480,0.7725
11.8896,-4.1220,2.4923
11.8896,-4.1220,-2.4923
11.8909,-5.9185,-1.5733
11.8909,-5.9185,1.5733
11.8911,-4.9677,-2.2839
11.8911,-4.9677,2.2839
11.8929,-1.4295,-0.7100
11.8929,-1.4295,0.7100
11.8976,-1.9943,1.6728
11.8976,-1.9943,-1.6728
11.8979,-2.6272,2.1651
11.8979,-2.6272,-2.1651
11.8981,-1.4125,0.6470
11.8981,-1.4125,-0.6470
11.8989,-3.3186,2.4309
11.8989,-3.3186,-2.4309
11.9002,-5.8777,1.6236
11.9002,-5.8777,-1.6236
11.9029,-1.3971,-0.5836
11.9029,-1.3971,0.5836
11.9051,-4.9092,2.3097
11.9051,-4.9092,-2.3097
11.9057,-4.0587,2.4966
11.9057,-4.0587,-2.4966
11.9072,-1.3833,-0.5198
11.9072,-1.3833,0.5198
11.9097,-5.8356,-1.6728
11.9097,-5.8356,1.6728
11.9098,-1.9530,-1.6236
11.9098,-1.9530,1.6236
11.9110,-1.3711,-0.4556
11.9110,-1.3711,0.4556
11.9131,-2.5730,2.1316
11.9131,-2.5730,-2.1316
11.9143,-1.3605,-0.3911
11.9143,-1.3605,0.3911
11.9153,-3.2573,2.4148
11.9153,-3.2573,-2.4148
11.9170,-1.3516,-0.3263
11.9170,-1.3516,0.3263
11.9193,-1.3442,-0.2613
11.9193,-1.3442,0.2613
11.9193,-4.8501,2.3340
11.9193,-4.8501,-2.3340
11.9195,-5.7923,-1.7209
11.9195,-5.7923,1.7209
11.9211,-1.3385,-0.1961
11.9211,-1.3385,0.1961
11.9217,-1.9128,-1.5733
11.9217,-1.9128,1.5733
11.9218,-3.9953,2.4991
11.9218,-3.9953,-2.4991
11.9224,-1.3344,-0.1308
11.9224,-1.3344,0.1308
11.9231,-1.3320,-0.0654
11.9231,-1.3320,0.0654
11.9234,-1.3311,0.0000
11.9281,-2.5198,2.0967
11.9281,-2.5198,-2.0967
11.9296,-5.7477,-1.7678
11.9296,-5.7477,1.7678
11.9316,-3.1964,-2.3970
11.9316,-3.1964,2.3970
11.9332,-1.8740,-1.5219
11.9332,-1.8740,1.5219
11.9337,-4.7904,2.3566
11.9337,-4.7904,-2.3566
11.9379,-3.9319,-2.5000
11.9379,-3.9319,2.5000
11.9399,-5.7020,-1.8134
11.9399,-5.7020,1.8134
11.9429,-2.4674,-2.0603
11.9429,-2.4674,2.0603
11.9444,-1.8364,-1.4695
11.9444,-1.8364,1.4695
11.9478,-3.1361,-2.3776
11.9478,-3.1361,2.3776
11.9481,-4.7301,-2.3776
11.9481,-4.7301,2.3776
11.9505,-5.6551,-1.8579
11.9505,-5.6551,1.8579
11.9540,-3.8684,2.4991
11.9540,-3.8684,-2.4991
11.9551,-1.8002,-1.4160
11.9551,-1.8002,1.4160
11.9574,-2.4159,2.0225
11.9574,-2.4159,-2.0225
11.9614,-5.6071,1.9010
11.9614,-5.6071,-1.9010
11.9627,-4.6694,2.3970
11.9627,-4.6694,-2.3970
11.9639,-3.0762,2.3566
11.9639,-3.0762,-2.3566
11.9654,-1.7654,1.3616
11.9654,-1.7654,-1.3616
11.9701,-3.8050,2.4966
11.9701,-3.8050,-2.4966
11.9717,-2.3655,1.9834
11.9717,-2.3655,-1.9834
11.9725,-5.5580,1.9429
11.9725,-5.5580,-1.9429
11.9753,-1.7319,-1.3062
11.9753,-1.7319,1.3062
11.9774,-4.6081,2.4148
11.9774,-4.6081,-2.4148
11.9798,-3.0169,2.3340
11.9798,-3.0169,-2.3340
11.9838,-5.5079,-1.9834
11.9838,-5.5079,1.9834
11.9848,-1.6998,1.2500
11.9848,-1.6998,-1.2500
11.9856,-2.3160,1.9429
11.9856,-2.3160,-1.9429
11.9861,-3.7417,2.4923
11.9861,-3.7417,-2.4923
11.9917,-6.5110,0.0000
11.9919,-6.5101,-0.0654
11.9919,-6.5101,0.0654
11.9922,-4.5464,2.4309
11.9922,-4.5464,-2.4309
11.9924,-6.5076,-0.1308
11.9924,-6.5076,0.1308
11.9933,-6.5034,-0.1961
11.9933,-6.5034,0.1961
11.9939,-1.6691,1.1929
11.9939,-1.6691,-1.1929
11.9946,-6.4976,-0.2613
11.9946,-6.4976,0.2613
11.9954,-5.4568,-2.0225
11.9954,-5.4568,2.0225
11.9955,-2.9582,-2.3097
11.9955,-2.9582,2.3097
